ply
format ascii 1.0
comment PCL generated
element vertex 1191
property float x
property float y
property float z
property uchar red
property uchar green
property uchar blue
element camera 0
property float view_px
property float view_py
property float view_pz
property float x_axisx
property float x_axisy
property float x_axisz
property float y_axisx
property float y_axisy
property float y_axisz
property float z_axisx
property float z_axisy
property float z_axisz
property float focal
property float scalex
property float scaley
property float centerx
property float centery
property int viewportx
property int viewporty
property float k1
property float k2
end_header
2.66184 4.8343301 3.5396199 139 139 138
2.9217701 4.6845498 3.6507699 140 139 140
3.29726 5.0745802 3.23772 140 140 137
3.1732099 5.3178501 2.9247899 131 131 129
2.8250599 5.0262699 3.26841 157 157 153
2.98454 5.11656 3.17118 149 148 145
2.8435199 5.5321798 2.64801 131 130 127
2.5308199 4.9361701 3.4142599 130 130 127
3.15449 5.3061099 2.91695 162 160 160
2.5527699 4.9229498 3.4281499 141 142 139
2.56653 5.2473402 2.9339399 110 109 109
3.27496 4.8266201 3.48681 131 131 128
2.7127399 5.2522101 2.9619601 117 117 114
2.5857699 5.4352498 2.75775 129 128 128
3.23544 5.4014902 2.8376 145 145 142
2.95856 4.9475098 3.3396499 110 109 106
2.9731801 4.97121 3.32183 114 113 109
2.9658301 5.1471801 3.11625 133 133 129
2.4539399 5.4416099 2.73388 126 126 123
3.1609199 4.9600401 3.3564501 148 148 149
2.26596 4.9430099 3.37149 138 137 136
2.6347499 5.0829802 3.1781001 142 142 140
2.3660901 5.51794 2.5818501 121 119 116
2.96297 5.1858001 3.0778401 155 155 152
2.67577 4.8515301 3.5225699 139 138 137
3.2646 5.20717 3.0550699 159 159 156
2.44292 5.6048298 2.49754 141 140 137
2.6324601 5.5520301 2.60741 122 119 117
3.05124 4.9571199 3.37128 145 144 143
3.3216 5.3731499 2.8569 133 133 131
2.8319399 5.8073702 2.32285 116 115 113
3.09904 4.9732399 3.3326001 118 118 116
3.1523499 5.2056298 3.0383101 136 136 136
2.2820001 4.8232098 3.55072 131 131 129
3.2472701 4.79737 3.5179501 118 118 114
3.2329299 5.3046999 2.9367099 126 126 125
3.11889 4.7954602 3.5185299 127 127 124
3.18506 4.8296099 3.48088 110 110 108
2.56389 5.5479298 2.6022501 145 144 141
2.01174 5.1257401 3.09988 143 141 143
2.0448501 5.1543598 3.0711801 135 135 135
3.0034399 4.2537098 4.2058401 132 134 134
2.9919801 4.3129201 4.1332202 111 111 112
2.7361901 5.4310298 2.7635601 113 113 110
2.7595799 5.1941199 3.02953 159 161 160
3.1700001 4.6071901 3.7660899 118 120 119
2.98015 5.2399702 3.0268199 126 126 127
2.78615 5.6186299 2.5529599 125 124 120
2.94626 5.0125399 3.3076501 141 141 137
2.8731201 5.6361699 2.5425601 123 123 119
2.8283601 5.4356399 2.7682099 133 132 129
2.41241 4.9876399 3.3204701 135 135 132
3.2855899 4.8727999 3.4175401 112 112 109
2.64747 4.9856 3.3347199 129 129 124
2.60953 4.9906101 3.28233 135 135 132
2.1900201 5.3238802 2.8571 139 139 137
2.3695199 5.6570301 2.4093599 123 122 119
2.32429 5.3741498 2.8026299 131 130 128
2.5146699 4.9785299 3.34729 127 128 125
3.09196 4.39996 4.0166302 122 124 125
3.64306 5.0409002 3.2783 157 156 151
2.6405399 4.6789699 3.66359 125 125 127
2.83002 5.3004999 2.93138 114 114 112
2.7939401 4.7958899 3.52635 118 118 118
2.3580599 5.5313301 2.5636001 121 120 117
2.6645801 5.5233102 2.6423199 126 125 121
2.7284501 4.8408599 3.5364201 148 148 145
2.1930301 5.0969701 3.15645 138 138 137
3.1891 4.8178101 3.4897599 118 118 115
3.10941 4.46311 3.9384699 132 134 135
2.6928501 5.6721802 2.4715199 134 133 130
2.0972199 4.8774099 3.46298 121 121 121
2.5450301 5.0104399 3.2913401 138 138 135
2.0546501 5.0080299 3.2765999 143 142 142
2.7571001 5.64398 2.5093999 123 122 118
2.5018699 5.0868101 3.20451 131 131 129
1.7900701 5.5962601 2.6173201 128 128 128
3.16202 4.9371099 3.3912699 151 150 149
3.3475201 5.2670398 2.9858 141 140 137
2.9000101 4.5512099 3.8154399 131 131 129
2.4079199 5.5318398 2.57745 121 119 116
2.50687 5.32867 2.85952 120 119 117
2.6449001 5.06144 3.2390299 133 133 130
2.0906799 4.8924599 3.4404399 158 158 158
2.53965 5.76192 2.29688 122 121 118
2.5620899 5.5472898 2.5940499 116 116 114
2.6275401 4.7772102 3.5354199 110 110 108
2.6833601 5.1961598 3.0485301 143 144 143
1.43901 5.37781 2.7999599 114 115 113
2.7361701 5.8258801 2.2890601 127 127 123
2.45227 5.46381 2.677 137 136 132
2.4581499 5.0457001 3.2436399 144 143 140
2.28422 5.4605098 2.73456 149 149 148
3.1937101 5.0665998 3.1930101 128 128 124
2.24824 5.4092898 2.7653 148 148 147
3.2057099 5.0775599 3.18434 120 120 117
2.96311 4.6271601 3.7311101 115 115 113
2.4212899 5.39924 2.75877 114 113 109
2.4570501 4.7261801 3.71229 154 154 153
2.79374 4.5132298 3.8745601 123 124 124
3.0467 4.3941498 4.0399098 109 112 112
2.4714301 5.66821 2.4353199 129 127 125
2.58986 5.39394 2.7962201 131 131 128
2.6426899 4.9495101 3.33653 135 134 134
2.63727 4.9549999 3.3775101 156 157 153
3.2479501 4.4180498 4.0103898 125 123 124
3.4337499 5.2709799 3.0211301 132 132 127
2.07986 4.7968102 3.55881 134 133 132
2.72159 5.1458402 3.12661 154 156 152
2.30356 4.9184999 3.4187601 135 134 132
2.80951 5.2867298 2.948 136 136 134
2.5390501 5.7365398 2.3241401 120 119 116
2.8145599 5.8056698 2.32428 123 122 120
2.6745 5.3866 2.80319 130 130 129
3.32111 4.6643901 3.6559801 106 106 103
2.3963001 5.5939398 2.45539 108 107 103
3.2435501 4.9446502 3.3520401 134 134 132
3.1835999 4.8143601 3.50507 121 121 118
3.2457199 5.20748 3.05423 121 121 121
2.8438799 5.5550299 2.61696 116 115 110
3.0611701 5.3332 2.90483 144 144 144
2.62623 5.27038 2.9555099 130 130 129
3.2628801 4.87605 3.43221 117 116 115
3.34267 5.2550101 3.01126 144 143 141
3.0478599 4.605 3.76231 125 125 122
3.18713 4.8835702 3.4667201 152 150 146
3.0908 4.6339598 3.72597 124 127 126
2.7124901 5.0290599 3.23947 128 127 125
2.4834199 5.2926402 2.91045 142 142 142
3.3508899 5.2445502 3.0192399 141 141 138
2.5787899 5.2586999 2.9639499 132 132 130
2.68103 5.84656 2.2337 120 119 116
1.80024 5.2179799 2.99019 123 123 122
2.1941199 4.83777 3.5177901 135 134 132
1.8399301 5.1364598 3.09444 134 133 134
2.7167599 4.9079299 3.44297 146 146 145
2.4972401 5.5163298 2.6086199 127 127 124
2.73581 5.2748799 2.941 139 139 137
2.97335 4.6069999 3.7404599 125 125 124
2.12199 4.9102802 3.42084 143 142 141
2.58255 5.1049399 3.1378 140 139 138
2.78775 5.4046502 2.8011501 121 121 117
3.1824601 4.8481998 3.53722 141 137 135
2.7918999 5.2950802 2.8970101 134 134 132
3.3111899 4.6728301 3.66327 109 109 106
3.56164 4.9911599 3.35989 143 143 140
2.7151999 5.7349801 2.3928199 127 126 123
2.5395701 5.5300899 2.60658 115 115 112
2.1486199 5.2393198 2.9697299 137 136 137
2.7908199 5.7302299 2.40539 120 118 116
3.12901 4.6443901 3.71312 174 175 174
2.7996199 5.05865 3.1833301 129 127 124
3.5478499 5.1228299 3.1740899 151 150 147
3.2793 5.0279298 3.2855501 140 140 137
2.3736899 5.44028 2.6956 118 116 113
2.7844901 5.6490102 2.52494 122 121 116
2.1189101 5.2273898 2.98648 137 137 137
2.25279 5.1332698 3.10237 167 166 164
2.3468001 5.5234499 2.57497 128 127 124
2.0727899 4.7950802 3.56043 149 147 145
3.1701 4.6832299 3.65873 132 132 134
3.0059099 5.2177501 3.0357201 146 144 141
2.7449501 4.85712 3.4430101 126 127 123
1.78573 5.4152298 2.7597899 131 131 129
2.7242301 5.7129898 2.4200599 127 126 123
3.1594901 5.3063998 2.9552801 131 131 131
2.60831 5.5572901 2.58658 113 111 109
2.8480201 5.2102098 3.0290699 120 119 118
2.58621 5.0408602 3.26266 127 127 124
2.6473801 5.2876701 2.9386599 115 115 113
3.5235701 5.1006598 3.2056201 151 150 147
2.7887499 5.22963 3.0132101 143 143 142
2.75002 5.7148199 2.4154301 133 132 129
2.45907 5.2524099 2.9621999 106 107 106
2.6502099 5.52038 2.6396501 121 120 117
3.0315599 4.8536301 3.5189199 136 134 131
1.7591701 5.3766599 2.8068199 140 139 139
1.95541 4.9928398 3.2788799 145 144 144
3.0016601 4.3351798 4.1101499 112 112 113
2.6468501 5.5874 2.56528 112 110 107
1.82831 5.33005 2.85502 127 127 124
2.0683401 4.8590999 3.5003901 130 129 129
3.2597699 5.3457098 2.88311 124 124 120
3.36274 4.9474602 3.38499 147 145 145
2.9404099 4.8446298 3.4719 125 124 123
3.1057799 5.1873498 3.0846 151 152 147
2.7841799 5.1939502 3.04211 200 201 198
3.1547201 4.6528902 3.7355399 152 153 151
2.5848 5.2994099 2.914 133 133 133
2.9793401 5.2363801 3.0174799 126 126 126
2.6515601 4.9425902 3.4012301 136 137 133
2.4756 5.3669801 2.80339 115 116 113
1.49851 5.3586702 2.8222401 118 118 116
2.47932 5.3713698 2.81899 142 142 141
2.63397 4.9325399 3.3508601 125 125 123
2.7397299 5.1005998 3.1725299 164 163 160
2.82814 4.8851199 3.4746499 139 139 134
2.38309 5.3624101 2.82271 145 144 143
3.3069 4.9092999 3.42711 160 159 155
2.4050901 5.3657799 2.8109601 134 133 130
2.8349299 5.3368902 2.8642001 135 135 130
2.23577 5.2544298 2.94438 144 144 142
3.1238101 4.3850598 4.0286198 127 129 128
2.28406 5.1212201 3.1273601 142 140 140
3.21542 5.1944499 3.0753901 161 161 159
1.78916 5.2392201 2.96436 144 143 143
2.34128 5.39469 2.77368 149 149 147
2.74967 4.8166499 3.5627 157 157 155
2.6631801 5.62041 2.52634 139 138 135
2.4177799 5.1864901 3.0431199 114 113 113
2.68643 5.4703398 2.71052 131 131 128
3.55955 5.0392599 3.27282 133 132 129
1.56376 5.4537802 2.6991401 152 152 151
2.6726799 5.4328499 2.7480099 144 143 140
2.5431199 5.72755 2.38327 119 117 114
2.7118599 5.6716299 2.46819 136 135 132
2.51474 5.4720602 2.6742699 118 118 114
2.36904 5.1641402 3.0687201 140 140 138
3.6140499 5.2075701 3.06653 140 139 136
2.4892199 5.5582099 2.5694301 126 126 122
2.7448299 4.9534502 3.3689699 136 136 132
2.1733201 5.0050902 3.2889199 171 170 171
2.87151 5.2136698 3.0202601 122 122 119
2.61639 4.89609 3.4592099 139 140 139
2.3865499 5.3002801 2.8898101 111 110 107
3.5332999 5.1676898 3.1244199 154 153 153
3.1425099 4.8996902 3.4569399 162 161 158
3.1291399 4.8955698 3.4385099 151 151 147
3.3429201 5.04109 3.27033 156 155 152
2.4331701 5.0043201 3.2952499 142 142 139
2.52525 5.62922 2.4770801 131 130 127
2.72768 5.5370998 2.6278801 138 137 134
2.7782099 5.2755399 2.9600401 107 106 105
2.4150901 5.4001398 2.7515299 135 134 130
3.06809 4.5702 3.7890201 109 109 107
2.0069399 5.2016201 3.01 131 130 130
2.7521901 5.1676798 3.0990701 135 137 135
1.64064 5.42696 2.74928 137 137 134
2.3527 4.9258499 3.4037499 132 131 132
2.6900499 5.4285002 2.7741799 127 127 126
2.6635399 5.0500698 3.25073 148 147 144
2.4020901 5.5606999 2.5297899 166 166 162
2.96629 4.43435 3.9830899 124 125 124
3.44911 5.0544901 3.24999 132 132 129
2.50211 4.7778101 3.61147 149 149 145
3.0021601 5.1768799 3.0906401 163 163 159
3.40031 5.1518998 3.1347301 142 143 139
3.1715701 5.0536599 3.1868501 137 137 134
2.56109 5.72855 2.38397 116 114 111
2.5070601 5.4700198 2.68854 127 126 124
3.09127 5.1568198 3.1212001 136 136 131
3.2137699 5.10638 3.1593599 139 139 136
3.02105 5.0404201 3.2714701 137 136 133
2.66991 5.16294 3.0694101 118 120 119
2.0148301 4.9465199 3.36693 132 131 129
2.5581601 4.8691101 3.4358599 106 106 106
2.15677 5.1891599 3.0149 140 139 138
2.6417601 5.1162801 3.1325099 113 113 112
2.56534 5.6219201 2.49349 124 121 119
2.5576601 5.34059 2.85391 148 148 145
2.6427 4.7070899 3.6874599 145 145 141
2.8134699 5.8941202 2.24299 129 129 126
2.61643 4.88696 3.40399 123 123 121
3.13989 4.9333801 3.3952899 155 155 154
2.6754501 4.92944 3.4029801 165 165 161
1.95692 5.19315 3.01981 140 140 139
2.67169 5.4161601 2.7753601 131 130 128
3.12445 4.8976998 3.45016 160 159 155
1.6514699 5.3938198 2.78146 120 120 117
1.31589 5.4182 2.7376599 122 123 121
2.69312 5.5602398 2.5929401 124 123 119
2.93046 5.7229199 2.45596 116 115 112
1.92101 5.24856 2.9555199 144 143 144
1.6890399 5.3181701 2.8691101 136 136 134
3.1136999 4.6960602 3.63627 121 120 118
2.42715 4.9636002 3.3562701 133 132 130
2.8661599 4.8192801 3.4878299 127 127 126
2.75262 5.2355599 3.0055599 127 127 127
3.5748799 5.263 2.99738 144 143 139
1.9638799 5.3935699 2.7885599 135 135 132
3.5166399 5.2312698 3.0395501 153 153 150
2.7130101 5.3400898 2.8579199 117 117 114
3.6112199 5.11973 3.1816599 154 154 150
2.3513501 5.1490998 3.0852201 128 128 126
2.0239999 5.4858198 2.70117 136 136 134
3.29318 5.197 3.0762401 141 141 138
3.2161801 5.0399199 3.2859099 152 152 151
3.72967 5.1745 3.0941 152 151 149
2.20332 5.0471201 3.2218699 153 154 154
2.25067 5.0695601 3.18764 140 139 138
2.9542501 5.7199402 2.45754 119 118 115
2.8848901 5.00634 3.30669 136 137 133
3.6341801 5.0228901 3.30639 133 131 127
2.9070001 5.0206299 3.28789 149 150 146
2.80972 5.0539899 3.2356701 135 135 132
3.3257201 4.96277 3.36516 141 141 138
3.10567 5.25032 3.00385 140 139 136
3.0925 5.29846 2.9421 135 133 134
2.36215 5.1968002 3.0106299 149 148 146
2.56968 5.1933198 3.04897 118 118 118
3.0653801 5.19981 3.0604899 140 139 136
2.6670101 4.96803 3.3072701 137 137 134
2.73262 5.3023801 2.9235799 135 135 134
2.9331 4.9249001 3.42904 126 124 122
3.07164 5.21908 3.0281899 135 134 130
1.97817 4.9652901 3.33407 150 149 150
2.5801301 5.34725 2.86536 120 122 119
3.3027301 4.7056999 3.64449 115 115 114
2.68086 5.5980301 2.5489199 128 128 124
3.0258501 4.8218999 3.5677099 159 156 155
2.8601501 4.5437102 3.85291 125 126 123
3.48561 4.9441099 3.3941 149 146 142
3.1731501 5.20643 3.0464799 144 144 143
2.69224 4.9043398 3.3889401 130 134 133
3.08444 4.32833 4.1164298 121 122 123
2.3908801 5.3579502 2.8001101 125 124 120
2.9246099 4.9405899 3.4086101 131 129 126
1.92775 5.37254 2.81201 138 138 136
2.4345901 5.5079298 2.60885 119 118 115
2.8457799 5.0810699 3.20948 144 144 143
2.1200299 5.2497301 2.93837 121 120 122
2.14691 5.1497302 3.07145 143 144 141
2.82726 5.0431299 3.2490599 148 147 145
2.9024 4.5939598 3.8073599 141 140 136
1.59044 5.39007 2.78932 129 129 128
2.29176 4.86937 3.48511 133 133 131
3.38311 5.0676999 3.2404301 152 151 148
3.12904 4.9067602 3.38905 125 125 124
2.6721599 4.9039998 3.4537301 152 152 152
2.5629799 5.7371101 2.35657 124 124 121
2.6681499 5.25281 2.96048 134 135 134
2.6886301 4.9159002 3.4235201 145 146 143
2.9591999 4.9671798 3.3504901 130 130 126
2.6484799 5.17804 3.0771401 159 161 158
2.4802301 5.1884298 3.03865 127 126 124
2.94087 5.03374 3.2779 155 154 151
2.8322799 5.1226101 3.15341 142 142 140
3.05846 5.0759001 3.2224801 151 151 149
2.08146 4.9057899 3.4216199 137 137 136
2.9304399 5.2974601 2.90715 166 167 166
2.4183199 4.9731698 3.3429699 129 129 126
2.7902999 4.9941301 3.28088 129 129 126
3.39152 5.2368398 3.0565901 121 121 121
2.55369 4.7729201 3.6217401 116 116 113
2.5683801 5.6833301 2.4253099 109 110 107
2.25719 4.855 3.4941399 142 142 142
2.75805 5.2491698 2.9951601 141 141 141
2.5717299 4.9615002 3.36397 140 140 135
2.80985 5.5725799 2.5962 125 124 120
2.0731001 5.20223 3.0157299 119 119 119
2.41436 4.9970298 3.3071201 143 143 140
2.7161801 4.9527998 3.32939 152 151 148
1.62651 5.32021 2.86709 126 126 124
2.8146901 5.3721299 2.84023 126 126 123
2.5345399 4.9045 3.4540701 133 133 132
3.15275 4.5548401 3.8443601 113 113 114
2.5655601 4.9347501 3.41062 132 132 128
2.6738901 5.3108001 2.8904901 153 153 152
2.5627301 5.13446 3.0987501 135 136 135
2.35076 5.3136501 2.85847 118 116 114
3.2736499 4.414 3.97242 126 127 126
1.701 5.4073601 2.76824 132 132 130
2.8168099 5.6157298 2.55476 122 121 117
3.2931099 4.7986302 3.53791 122 122 119
2.9538901 4.5629101 3.8205099 133 134 132
1.38168 5.3722601 2.80281 119 121 118
2.5516601 5.69206 2.4216001 128 126 124
2.44449 4.8386698 3.5204599 143 142 143
2.6830699 5.4814501 2.6997001 138 139 136
2.21645 4.8410902 3.5139301 132 131 129
2.2792399 4.9256401 3.40692 145 145 143
3.15711 5.0490098 3.2717099 146 146 143
3.3719201 5.2859101 2.9584301 149 147 145
2.5359099 5.4913602 2.66554 124 124 121
2.6452701 5.3308201 2.86181 123 122 118
2.8117299 5.4643998 2.7306001 131 130 127
2.65974 5.77914 2.3420401 152 151 148
2.54318 5.2870998 2.9205699 115 115 116
2.70118 5.3266802 2.8814001 116 115 112
2.9481001 4.6642799 3.69063 113 113 109
1.45046 5.3422899 2.84023 115 117 113
2.8596101 5.3878498 2.8124101 126 125 122
3.18484 5.0911498 3.17242 136 136 134
2.29703 5.2695599 2.9256001 126 126 122
3.0639901 4.65412 3.72172 126 127 122
2.8968501 5.16045 3.11307 147 147 144
3.0959301 5.0246501 3.2681601 125 125 122
2.5860701 5.2279801 2.9713099 151 151 150
2.64307 4.9552202 3.3297701 125 124 124
2.11517 5.0471702 3.2235899 141 141 141
2.48124 5.3544402 2.8304999 124 123 122
2.3446801 5.3758798 2.7760201 118 117 113
2.32938 5.19625 3.02087 139 139 136
1.86465 5.3986602 2.7853799 141 141 139
2.5638199 5.1202898 3.1404099 140 140 135
3.1767001 4.9582601 3.3640599 154 153 151
2.78266 5.1518798 3.11919 143 145 142
1.98694 5.1312399 3.09446 136 136 137
2.0678899 4.86689 3.4734001 131 131 131
2.88747 4.7644401 3.56127 121 121 117
2.4656601 4.9565802 3.32306 118 117 115
2.1057601 5.2694201 2.92048 130 130 131
2.8603599 4.4965801 3.89768 133 133 132
2.7488201 5.4763699 2.72545 115 115 112
2.4303 4.8811302 3.47437 148 148 146
1.78581 5.2506499 2.9483399 163 162 163
2.79808 5.5381699 2.6396699 137 135 129
2.0803499 4.93718 3.38465 135 135 134
2.3596699 4.94173 3.3803699 130 129 127
3.0939901 5.16328 3.1111 143 143 138
1.93936 5.4404402 2.7326901 126 126 125
2.2743101 5.0903001 3.1726799 123 123 122
2.2344301 4.9352102 3.3848901 140 140 138
2.5385799 4.7726998 3.61762 126 126 122
2.2307601 5.2677202 2.91786 180 180 178
2.9008701 5.0557799 3.24828 144 143 140
2.50932 5.2251201 2.98386 148 148 145
2.4284501 5.2466998 2.9662499 124 125 124
3.3074 4.9576201 3.37216 149 148 146
2.77035 5.3375902 2.8555501 134 133 131
2.3540101 5.4508901 2.66326 123 121 118
2.50314 5.31675 2.8682401 135 135 133
3.13306 4.33535 4.1071501 125 127 127
1.95108 5.4830999 2.6997399 122 121 119
1.548 5.2767801 2.92047 121 122 121
3.6359401 4.9993401 3.3492301 144 143 140
3.45784 5.2516499 3.01319 153 153 150
2.4895999 5.5596499 2.61712 130 130 130
2.1194601 4.9217701 3.40274 128 127 125
1.4543101 5.2901001 2.9084899 114 114 114
2.3217499 5.0322599 3.2356601 124 124 124
1.87553 5.40695 2.7722299 140 139 137
3.2578499 4.9908099 3.3273101 160 161 160
2.3762901 5.6717601 2.3889101 127 126 123
2.5034499 5.5985999 2.52245 121 121 117
1.92413 5.1568999 3.0696199 138 138 138
2.2985401 5.4591298 2.62288 130 128 125
2.71752 5.02279 3.2744801 145 145 142
2.55688 5.4495201 2.7309 140 139 138
3.5980999 5.19278 3.08848 146 146 145
2.54808 4.8524799 3.5104899 136 135 133
2.1426301 5.5026999 2.69382 122 122 122
2.7494299 5.5462799 2.6278 128 127 123
3.05002 4.8394098 3.4707401 127 127 124
3.2576699 4.9479899 3.3755 143 140 137
1.57844 5.2081199 3.0034001 128 128 128
3.10307 4.6154199 3.75193 105 106 104
3.71805 5.1056299 3.1899099 141 140 136
2.0886099 5.2677798 2.9541299 127 127 124
2.8102901 5.50739 2.65295 149 148 150
3.33898 5.2821002 2.9458599 125 124 125
2.0693901 5.2855902 2.90345 119 119 119
2.825 5.3652601 2.84741 141 140 138
1.44805 5.38486 2.7922399 128 128 127
2.71891 4.9073 3.38311 114 117 115
3.40044 5.2256198 3.0481 155 155 151
1.59833 5.48734 2.7046499 145 144 144
2.2507401 5.2171402 2.99119 141 140 139
2.7353401 5.3710399 2.8217399 126 125 121
1.61114 5.1726098 3.0469 132 132 132
3.2793801 4.5130701 3.85728 122 123 125
2.4823799 5.5149102 2.6231501 136 135 132
1.43156 5.4249601 2.7292399 132 132 129
2.38239 4.7584 3.6313601 137 136 136
2.8159001 4.6402502 3.71787 118 119 118
2.5536399 5.7565699 2.3424301 134 133 130
1.85814 5.2012 3.00881 121 120 120
3.4201601 5.0829101 3.22082 146 146 144
2.59671 5.7403102 2.37639 121 120 117
1.90913 5.2333398 2.9742401 138 137 137
3.1622801 5.1449199 3.1264901 148 146 149
2.63392 4.9456601 3.3380201 130 130 129
3.4814999 5.1374898 3.1482401 147 147 144
2.46999 5.5419102 2.5824399 125 124 121
2.3540399 4.8704901 3.48106 130 130 127
1.78699 5.4205298 2.75316 133 133 131
2.7124901 5.1327701 3.13796 146 146 144
2.7017801 5.3822398 2.81198 125 125 122
3.36148 5.0878 3.20895 154 155 152
3.2507999 4.80896 3.4867101 127 127 123
2.77999 5.0489302 3.2399299 137 137 134
1.61429 5.4361501 2.7436099 135 135 133
2.46118 5.5741701 2.5476899 127 126 124
1.9243799 5.03093 3.2187901 165 165 165
2.4942501 5.3214698 2.8695199 148 149 148
3.28074 4.3154702 4.1199098 129 129 128
3.1347301 4.8401999 3.46737 116 116 114
2.41904 5.5852499 2.51689 156 154 151
3.10217 5.0980501 3.19556 149 149 146
2.6594701 5.6496301 2.4885499 130 129 126
2.96965 4.8536401 3.5293801 141 137 136
2.2627001 4.8180299 3.52863 145 145 143
2.4091899 5.27319 2.9229801 135 135 133
3.11461 4.5082202 3.8786199 121 123 122
3.68891 5.0682201 3.2495601 141 141 137
3.0615301 5.1708002 3.0906601 130 130 130
3.0662999 5.1831799 3.0886099 135 136 131
3.1173899 4.40517 4.02806 127 128 127
3.25071 4.4126 4.0166502 127 126 127
2.1265399 5.5254798 2.6679599 138 138 137
2.16238 4.8158398 3.53877 169 169 166
2.7892699 5.5195098 2.66839 134 133 128
2.7767301 5.4401898 2.7599001 126 125 122
1.7196 5.4499002 2.72402 132 131 128
2.4338 5.34272 2.8504801 126 126 124
1.34931 5.4138198 2.7608399 111 112 110
2.8428099 4.5878601 3.77613 113 113 112
3.15096 5.1402998 3.14447 162 162 158
2.55738 4.9079499 3.38714 115 116 114
2.3485 4.9201398 3.4073501 137 137 135
1.9617 5.0992498 3.1298599 140 141 141
2.4070799 5.1971302 3.0299301 162 162 162
2.7824299 5.72752 2.39815 120 119 116
3.5769 5.2034702 3.08162 147 147 143
2.8973601 4.9565701 3.3622301 149 149 146
2.5331399 5.4082398 2.7627499 130 130 127
2.6754999 5.0750299 3.1833899 120 119 118
2.7100301 5.0911899 3.1900499 129 127 125
3.1963 5.2164798 3.0332799 163 163 160
2.4179699 5.20683 3.0136099 138 138 136
1.9749399 5.4356599 2.72754 150 150 148
2.46931 5.14117 3.08899 160 161 159
2.0071599 5.39676 2.78301 143 143 141
3.2164299 4.6759801 3.6871099 120 120 119
2.2509201 5.4278998 2.7530999 140 140 139
1.5741 5.2746501 2.9251599 130 130 130
3.0258701 5.3587198 2.88323 115 115 112
2.7762401 5.1874399 3.07917 151 154 152
2.61937 5.5120502 2.6501901 139 137 134
2.54267 4.9612498 3.38271 136 135 133
2.2302101 4.8197598 3.5316701 140 139 136
2.51917 4.8687601 3.48768 138 139 137
2.7582901 5.1887598 3.05844 125 124 123
2.6724501 5.9174199 2.1443801 128 127 124
2.9073501 5.2495198 2.98771 150 149 150
2.7741899 5.0784602 3.19873 139 138 137
2.6821401 5.9294801 2.1414399 121 121 118
2.5815599 5.5036201 2.6564701 137 135 134
2.3596201 5.47507 2.62973 134 132 129
2.69121 5.9215002 2.14763 123 121 118
2.8136499 5.1965599 3.0387299 151 151 149
2.2565999 5.3202901 2.82847 126 124 122
2.68646 5.9086299 2.1589301 135 135 132
2.6733501 5.9066401 2.1650801 131 130 126
2.6724 5.9012899 2.1742699 125 125 122
2.6737499 5.8933201 2.1826899 119 118 115
2.65939 5.8656702 2.19962 138 137 134
2.42624 5.2788601 2.9194901 138 137 135
2.80493 5.1893601 3.06936 151 152 150
2.5885601 4.76513 3.6247599 130 129 127
3.2832401 5.1139698 3.1530199 121 121 117
2.52684 5.7792301 2.2811999 124 122 119
2.86149 5.26612 2.92957 169 169 167
2.6575999 4.8707199 3.51702 129 128 127
2.6505799 5.8422999 2.2405901 137 136 133
2.5311601 5.7720599 2.2992699 122 120 117
2.50723 5.7723198 2.30195 127 124 122
2.5451701 5.2606702 2.9353499 153 152 150
2.5425 5.7568102 2.3048899 124 123 120
2.83358 5.6900001 2.4848599 128 127 124
2.45715 5.1013198 3.14731 124 124 122
2.5299101 5.74439 2.31932 129 127 124
2.9161201 5.21595 3.0441699 154 153 150
2.43664 5.7079802 2.3727601 128 126 123
2.4288499 5.69981 2.3791101 117 116 113
2.66979 4.9674301 3.36514 142 142 137
2.2762301 4.90799 3.4223399 145 144 142
2.52426 5.7371202 2.3433299 133 131 129
2.52391 5.7376199 2.3518 123 122 119
2.3589699 5.4429102 2.65308 124 122 118
2.78403 5.3372998 2.8512001 124 123 120
2.87515 5.4034901 2.80668 130 131 127
1.79934 5.4460001 2.7201099 116 115 112
2.5214601 5.72965 2.3557301 122 121 118
2.7012601 5.85115 2.2335801 119 118 116
2.47978 5.7310901 2.3784201 129 126 124
2.4450099 5.6896 2.39726 118 116 113
2.3952701 5.6658502 2.4128101 125 124 121
2.20768 5.1465602 3.0774801 136 135 134
2.5330999 5.2114801 2.99702 149 149 147
2.5241201 5.7305999 2.37328 126 124 121
2.5047901 5.7254901 2.38168 119 116 114
2.4419999 5.67698 2.41013 121 119 117
2.41623 5.67729 2.4093699 127 126 123
2.3845301 5.6382098 2.4228899 139 138 135
2.1001899 4.9289398 3.3955801 129 129 128
2.67874 5.7962098 2.3118601 131 130 127
2.2676001 4.99439 3.3034 133 133 134
2.6103499 5.7702498 2.3384099 129 128 125
2.4734199 5.7119799 2.4003401 127 125 123
3.17469 4.77912 3.54019 116 116 113
2.6470301 5.7845998 2.33357 130 129 126
2.4742 5.6828299 2.40873 120 118 115
2.74527 5.80757 2.29898 133 131 129
2.7353499 5.8098698 2.29721 132 131 128
2.7097499 5.7971301 2.31551 121 120 117
2.5991001 5.74194 2.36025 125 124 121
2.4866199 5.6807499 2.4133999 132 130 128
2.4628401 5.67311 2.42465 121 119 117
2.40763 5.6121402 2.4495201 111 110 107
2.6740999 5.4519601 2.7433801 158 158 159
3.21614 4.44526 3.9779201 130 131 131
2.5372601 5.3797202 2.8027 134 133 132
2.54092 5.71632 2.3917601 108 109 106
2.4747901 5.6782398 2.42539 120 116 114
2.8216701 5.2195401 3.02249 126 129 128
2.52285 4.7655401 3.6296501 161 161 158
3.2988801 4.8852801 3.4535201 143 141 139
2.63746 5.7438402 2.3652699 147 146 143
2.36868 5.59835 2.4773901 128 127 123
3.1839499 4.3579402 4.0803599 118 120 119
2.7373199 5.7950401 2.3294899 135 134 131
2.6159 5.7323799 2.38466 131 130 127
2.5724001 5.69767 2.39993 121 121 117
2.5665801 5.7037702 2.40062 121 121 118
2.5325601 5.6928601 2.41693 134 131 129
2.4470401 5.6419702 2.45994 126 125 122
2.3926499 5.5804801 2.4763501 131 130 127
2.39065 5.5797701 2.4799099 131 130 128
2.7193799 5.0624399 3.2210801 150 149 146
2.05548 5.0479498 3.2203901 134 135 133
2.6956501 5.7598901 2.3533001 138 137 134
2.57497 5.6971898 2.40908 123 121 118
2.3961501 5.5957599 2.4856801 125 123 120
2.7302001 5.7704802 2.3420601 152 151 148
2.61903 5.7257099 2.3961599 114 113 110
2.5880799 5.6989698 2.4073501 117 116 113
2.48943 5.6613798 2.4595301 124 121 119
2.4800899 5.6612501 2.4544799 124 123 120
2.4690499 5.6448398 2.46243 135 134 131
2.52091 5.3181801 2.8880601 130 131 128
3.3779199 4.94346 3.3947799 145 144 141
2.61712 5.7247801 2.4063699 113 112 109
2.5967801 5.7045498 2.4198899 144 143 140
2.55459 5.6789098 2.4298301 121 121 118
2.52918 5.6746702 2.4433899 132 131 128
2.4412999 5.6168098 2.4788001 122 121 118
2.41575 5.60044 2.4918799 134 132 129
2.76771 5.7769299 2.3428199 117 116 113
2.7557199 5.7698698 2.35186 132 131 128
2.68433 5.7323499 2.3856699 123 122 119
2.5585201 5.6764202 2.4367499 123 123 120
2.5503399 5.66535 2.43925 153 154 150
2.5211101 5.6599102 2.45926 127 126 123
2.50808 5.6514802 2.46771 126 123 121
2.4807401 5.6294198 2.47194 122 120 117
2.8008201 4.82021 3.4839399 116 117 114
2.73138 5.7593398 2.3690701 131 130 127
2.66959 5.7182999 2.39428 137 136 133
2.65236 5.7154002 2.4019101 124 122 119
2.6061499 5.6928401 2.42555 164 164 160
2.4637899 5.62535 2.4882801 121 120 117
2.69187 5.7179298 2.40083 134 133 130
2.6802299 5.7123799 2.4040999 125 125 121
2.6325901 5.7091999 2.4229 113 113 109
2.6027801 5.6912298 2.4344599 163 162 159
2.5462999 5.6535802 2.4576199 142 141 138
2.5360301 5.6393099 2.4703901 126 126 123
2.4674301 5.6079302 2.49857 120 118 114
2.4521501 5.6055498 2.5007501 126 125 122
2.5146599 5.6284399 2.4912 132 131 128
2.4935999 5.60536 2.49668 117 117 113
2.4872301 5.6132398 2.4977801 117 116 113
2.46365 5.5987501 2.50877 116 115 111
2.4096899 5.5678701 2.5267899 123 122 119
2.3961201 5.5472398 2.53847 175 174 170
2.0499301 4.9239898 3.4075501 142 142 142
2.7872 5.7720799 2.3700199 132 130 127
2.76038 5.75419 2.3820801 118 117 114
2.7479801 5.7354102 2.3926201 123 122 119
2.6633601 5.6928 2.4254 128 127 124
2.6419899 5.7010598 2.43976 135 134 132
2.4428699 5.5806799 2.5222199 111 111 107
2.3766601 5.5483499 2.5491099 120 119 116
2.3427401 5.1445999 3.0827701 129 129 128
2.1268001 5.4073801 2.7709701 129 129 127
3.26246 4.8778901 3.4224501 115 115 112
2.6935 5.6936402 2.4221699 127 126 123
2.6494901 5.6879201 2.44804 124 123 120
2.6075599 5.6624799 2.4675801 130 128 125
2.5989399 5.6687398 2.46242 119 117 115
2.57409 5.6477799 2.4739201 124 123 120
2.4556601 5.58148 2.52913 122 121 118
3.06791 4.54106 3.8433299 135 135 136
3.15591 4.3613601 4.07862 138 138 138
1.9043 5.0481501 3.2002101 114 114 114
2.7882099 5.7413902 2.38765 117 115 112
2.7322199 5.7182698 2.41167 111 111 107
2.66663 5.68083 2.4444499 120 118 115
2.5906799 5.6489401 2.4734001 125 123 120
2.4700601 5.58775 2.5278699 119 119 115
2.8478799 4.72228 3.5981801 137 136 135
2.3954699 5.5518699 2.55724 120 118 115
2.3906901 5.53549 2.5699201 113 112 109
2.3777599 5.5269198 2.5752299 113 112 108
3.4685299 5.1437201 3.1396201 143 142 140
2.60587 4.90696 3.42871 147 147 147
2.6707301 5.6798401 2.4516001 116 115 112
2.6191399 5.6479602 2.48192 136 134 132
2.6036201 5.6496401 2.48104 131 129 127
2.51 5.6052499 2.5186501 118 118 114
2.4895799 5.5844898 2.53405 137 135 132
2.4712801 5.5727401 2.53931 127 126 123
2.3445499 5.4830699 2.59655 128 127 124
2.27704 5.4622202 2.6217401 121 119 116
2.7581201 5.7091198 2.42872 141 141 138
2.7193501 5.7062302 2.4393599 155 154 151
2.68538 5.6904702 2.4488699 122 121 118
2.5628901 5.6058602 2.5034101 150 149 147
2.5542901 5.6019101 2.5055499 124 123 120
2.4170899 5.52776 2.5780301 121 119 116
2.11482 5.33775 2.85005 150 150 147
2.73487 5.7043099 2.43537 144 143 140
2.7271099 5.7052698 2.4377401 151 151 147
2.69047 5.68468 2.45403 118 117 114
2.38885 5.51824 2.58657 132 131 128
2.37201 5.5057802 2.5946 128 127 124
2.3594401 5.4924598 2.60794 131 130 126
2.60339 5.0178499 3.2576599 120 119 116
1.94727 5.0192299 3.2394199 137 138 136
1.73391 5.3670502 2.81498 138 137 137
3.4812601 5.2223601 3.04493 146 146 142
2.7195699 5.6983099 2.4486201 141 140 137
2.7200699 5.6865702 2.4591401 129 128 125
2.81815 5.0185299 3.26739 118 119 114
2.79878 5.7141399 2.4360499 119 117 114
2.7514701 5.6891198 2.44942 134 133 130
2.71086 5.6686401 2.4726901 149 148 144
2.70227 5.67314 2.4683199 139 138 135
2.3991499 5.5044198 2.6057401 126 125 122
2.78282 5.4624701 2.7288599 136 135 132
2.3703401 5.48632 2.62079 129 128 124
2.3550601 5.47578 2.62167 128 126 123
2.33463 5.4627399 2.6331401 119 117 115
2.2161 5.1445999 3.0941899 149 149 146
2.0890999 5.0446401 3.21753 142 143 143
2.9919701 5.6828499 2.5002799 116 115 111
2.8022299 5.4783802 2.7041099 131 129 126
2.4955201 5.5556102 2.5682499 119 119 116
2.31973 5.4552302 2.6424301 116 115 112
2.18154 5.1802902 3.0323501 150 149 148
2.8289399 5.1462798 3.0949399 134 134 132
2.99383 5.1118202 3.1772399 147 146 142
3.3228199 5.2410202 3.0283699 140 140 137
2.73506 5.6696501 2.46889 126 125 122
2.72843 5.6759 2.4718201 119 118 115
2.72066 5.67665 2.47474 135 134 131
2.6725299 5.6423898 2.4976499 118 117 113
2.6451399 5.62497 2.5176101 124 123 119
2.6308701 5.62079 2.5220699 142 140 137
2.6117201 5.60463 2.53298 123 121 120
2.5536399 5.5781102 2.55708 134 132 131
2.53813 5.5766702 2.5607901 126 125 122
2.5157199 5.5548701 2.56738 133 132 130
2.4551301 5.52596 2.59922 129 128 125
2.3880501 5.4825201 2.6275401 111 110 106
2.3803899 5.48031 2.6305001 123 122 118
2.3515501 5.4564199 2.64274 127 125 122
2.6003101 5.1331201 3.1269701 149 148 144
2.80933 5.71521 2.44893 137 136 132
2.71749 5.6560202 2.48894 145 144 141
2.6979301 5.64362 2.50071 125 125 122
2.57866 5.5805702 2.5466499 109 107 106
2.4146199 5.4931002 2.61554 136 135 132
2.3700299 5.4488201 2.64013 143 142 137
1.66145 5.3420501 2.8430099 139 138 137
3.2425101 4.6827598 3.6480899 131 130 129
2.7788601 5.66609 2.4760201 132 131 127
2.6408401 5.6107602 2.5369201 137 136 132
2.4305799 5.4903898 2.6287899 116 116 113
2.4166701 5.4858599 2.6245 131 130 127
2.3963599 5.4790101 2.63587 119 118 115
2.39186 5.46872 2.64464 127 126 122
2.7286999 5.6374302 2.4962399 110 109 105
2.52089 5.5409002 2.5901501 128 128 124
2.4163401 5.4819999 2.6442101 130 129 125
2.3741901 5.4489002 2.65449 129 128 124
2.6882701 5.33599 2.8724999 152 152 150
2.18191 4.9043899 3.4491999 129 129 128
2.9300499 4.8849702 3.49437 127 128 121
2.4823301 5.1124501 3.13853 123 121 118
2.7758501 5.6648202 2.4849801 135 135 131
2.71768 5.6311498 2.5115199 124 123 120
2.6756001 5.6132498 2.5368199 136 135 131
2.5294001 5.5145102 2.5945001 119 119 116
2.4505701 5.5002899 2.6294601 127 126 123
2.38381 5.4492998 2.6663799 115 113 109
2.3776 5.4630098 2.65942 123 121 117
2.3728499 5.4527102 2.6666999 122 121 116
2.22312 4.95227 3.3654301 134 134 132
2.35098 5.3754601 2.80144 150 149 148
2.76456 5.6419201 2.4998901 135 134 131
2.7404799 5.6426401 2.51179 133 133 129
2.64727 5.5968299 2.55528 129 128 124
2.5045099 5.5100098 2.6133499 134 134 130
2.46755 5.4974298 2.6368999 135 134 130
2.4084899 5.4630198 2.65695 121 120 115
3.0422001 4.86654 3.5329199 141 139 136
2.3943 5.4593501 2.66096 118 118 113
2.3587999 5.448 2.6759801 116 114 111
2.3317101 5.4220099 2.6886001 122 120 116
2.1556301 4.97611 3.32199 137 136 138
2.81076 5.6603999 2.49506 132 131 127
2.7735701 5.65904 2.5031099 125 124 119
2.67191 5.5973301 2.5494101 133 133 127
2.63535 5.57901 2.57073 144 142 140
2.6217 5.5690398 2.5701201 173 172 170
2.5539601 5.5439301 2.596 119 118 116
2.5071101 5.5127802 2.6221499 136 137 133
2.4953401 5.5089998 2.6331401 140 139 137
2.44154 5.4738402 2.65662 127 127 123
2.41839 5.4693298 2.6585701 119 117 114
2.8018601 5.7374802 2.3986001 120 118 116
2.76844 5.64189 2.52161 124 124 119
2.71275 5.6052999 2.5479701 127 127 123
2.6587901 5.5834498 2.5632601 127 127 123
2.6559801 5.5980701 2.56287 126 126 122
2.57394 5.5457501 2.6031301 143 141 140
2.52174 5.5148301 2.62467 135 135 131
2.43435 5.4609299 2.6719799 131 130 127
2.9683499 4.2753401 4.1880898 128 128 129
2.75629 5.62572 2.53318 119 118 114
2.6456201 5.5665002 2.5794699 124 123 120
2.6328299 5.56141 2.59148 165 163 162
2.5750201 5.53544 2.61607 140 138 137
2.4221201 5.44982 2.6795499 128 127 123
2.3681901 5.4313302 2.70471 116 115 111
2.0929401 5.3596101 2.8280201 127 126 125
1.98422 5.1977301 3.01213 130 130 130
2.6164999 5.5572901 2.5977001 142 139 139
2.56196 5.5380301 2.6199901 132 130 128
2.51688 5.4981198 2.63731 122 122 119
2.51334 5.4954801 2.6475999 128 128 125
2.36042 5.4204102 2.70804 116 115 110
2.63802 4.9721999 3.30286 121 121 120
2.6454599 5.5555501 2.60062 129 128 125
2.6112499 5.53897 2.61448 135 132 131
2.6956899 4.8371 3.53495 141 141 139
2.5473101 5.5118098 2.64113 127 126 123
2.4329901 5.4519801 2.6824801 116 115 110
2.4250901 5.4363499 2.6851499 113 112 107
2.3589301 5.45087 2.7178299 127 125 122
2.32915 5.3933001 2.7332001 136 135 131
2.7490699 5.5964699 2.55481 127 126 122
2.7401199 5.6065001 2.55898 114 113 108
2.56038 5.5122399 2.63712 127 126 123
2.5021701 5.4870901 2.66359 126 126 123
2.49423 5.4767699 2.66645 112 112 108
2.38537 5.4224901 2.72311 122 121 117
3.04125 4.3681502 4.0671201 115 117 118
3.08831 5.2385998 3.0148101 131 131 130
2.7234299 5.2386198 2.9658799 129 129 128
2.3656099 5.37953 2.7974 147 146 145
2.50647 5.4777999 2.6739199 129 128 125
2.48048 5.4652801 2.6826501 132 131 127
2.4342599 5.43221 2.70191 111 110 106
2.4036701 5.4203401 2.72051 120 119 116
2.9079599 4.3569102 4.0703902 134 135 135
2.27406 5.2119498 2.9881999 137 137 135
2.0557499 5.0313802 3.24017 127 128 127
2.7750001 5.5914798 2.5667601 136 135 131
2.7526901 5.5859699 2.5747499 135 134 130
2.70714 5.5690098 2.58566 118 117 113
2.6883099 5.5532498 2.60607 131 131 127
2.6254599 5.5129199 2.6249101 126 125 121
2.47032 5.4563398 2.69963 120 120 117
2.4252501 5.421 2.71681 137 136 131
2.4142699 5.4170599 2.7253001 126 125 121
2.53334 4.8667402 3.4914701 141 140 138
3.6020601 5.0324602 3.2821801 150 148 144
2.6377699 5.5241599 2.63728 135 134 131
2.58921 5.50735 2.6491499 137 135 134
2.4500301 5.4341998 2.70892 111 110 106
2.4439199 5.4292498 2.7197299 127 127 123
1.72702 5.3434 2.8387401 138 138 138
2.7639799 5.2603102 2.9476299 137 135 134
2.72875 5.5576401 2.60516 126 125 121
2.5792601 5.5001998 2.6635699 139 138 136
2.4145501 5.4115801 2.73698 128 128 123
2.8045001 5.5858402 2.5798399 133 132 128
2.7130699 5.5425801 2.6186399 123 123 119
2.6557901 5.51754 2.6359899 124 123 119
2.60988 5.5169201 2.65661 121 119 117
2.5894899 5.4985099 2.6719201 122 122 119
2.54267 5.46807 2.6865301 122 121 118
2.37795 5.4046898 2.7539401 123 122 118
2.3201201 5.34442 2.7848001 114 112 108
2.70381 5.5488 2.6249599 119 119 115
2.64958 5.5149298 2.6510201 133 132 129
2.4410999 5.1220498 3.1204 116 116 116
2.5323701 5.4562502 2.7081699 115 115 112
2.47844 5.43258 2.7269599 120 119 116
2.61619 5.2775602 2.94259 131 131 131
2.84009 5.60811 2.5801799 122 120 117
2.5826199 5.4896102 2.68521 150 149 147
2.51583 5.4523001 2.7141399 120 120 117
2.3774199 5.4011998 2.7772801 120 120 115
2.30336 5.3200498 2.81022 119 118 114
2.8292301 5.5861402 2.5945599 107 106 102
2.77033 5.5559402 2.61306 148 147 143
2.65466 5.5029602 2.6675701 116 115 113
2.42962 5.3933401 2.76614 123 123 119
2.3515 5.3439698 2.8011 125 123 119
2.7195799 5.5256 2.64569 110 110 107
2.6350901 5.4860601 2.6859601 124 123 120
2.46383 5.4008398 2.76073 127 127 123
2.75841 5.5377898 2.6325099 121 120 116
2.7377999 5.5209198 2.6413801 121 120 116
2.7010801 5.5068498 2.66555 130 129 126
2.6249499 5.4852099 2.69013 123 122 119
2.50876 5.42414 2.7425399 120 121 118
2.4809301 5.4039001 2.76264 121 121 117
2.4749899 5.4053602 2.75405 113 113 110
2.4549201 5.3923702 2.77056 128 128 124
2.4199901 5.37608 2.7892399 126 125 122
2.72282 4.94169 3.33867 140 138 135
3.63855 5.1872001 3.09115 153 153 150
2.18274 4.8852901 3.4505 134 134 132
2.6619899 5.4872799 2.6828401 141 140 136
2.96825 5.1426001 3.1300499 133 133 129
2.87868 5.0240598 3.2523201 125 124 122
2.70401 5.5062399 2.67469 131 130 127
2.6696601 5.4786801 2.6958301 140 140 137
2.6431401 5.4835501 2.7022901 124 123 120
2.6186299 5.4695702 2.7081499 132 130 128
2.5282199 5.4081502 2.7546999 122 122 119
2.47317 5.3930402 2.7709301 122 122 119
2.2764201 5.3678198 2.8092501 146 144 142
2.9510801 5.1876402 3.07688 146 146 143
3.2295499 4.48945 3.9165101 113 113 113
2.77353 5.5364699 2.6491001 127 127 121
2.69081 5.4895701 2.6877899 134 133 131
2.65044 5.4693599 2.70259 133 133 130
2.43922 5.3772001 2.8034799 129 129 125
2.28088 5.1413002 3.0996699 132 130 129
2.70279 5.4765301 2.6877201 142 142 139
2.6751101 5.4685001 2.70822 132 131 128
2.5948 5.4408998 2.7444699 132 131 130
2.5617399 5.4281602 2.75524 127 127 125
2.4912701 5.3834901 2.78654 129 129 126
2.4558301 5.3692398 2.8063099 121 122 119
1.9017 5.0434699 3.2060299 111 111 111
1.89987 5.4823599 2.7053599 130 130 127
2.7588301 5.5229802 2.67413 140 140 134
2.73329 5.4862199 2.6804299 141 140 136
2.65416 5.4583201 2.71786 139 139 136
2.6145899 5.44909 2.74033 148 146 144
2.54967 4.8972502 3.4009399 131 132 131
2.60411 5.4408202 2.7485299 143 142 141
2.35798 5.3065 2.8506501 122 120 117
2.0732701 4.83916 3.55879 128 127 127
2.7446499 5.2041602 3.0116301 150 150 152
2.7611301 5.5065699 2.67858 144 143 140
2.63117 5.4533801 2.7369001 112 111 108
2.5943899 5.4292202 2.7623999 132 130 129
2.5274 5.3947101 2.7803099 143 143 140
2.5220799 5.3899398 2.7829399 134 135 131
2.6484799 4.9906402 3.28246 138 139 137
2.8610899 5.5465002 2.64417 135 134 131
2.83588 5.5198998 2.6644001 127 126 122
2.62764 5.4411898 2.74704 125 124 122
2.4840701 5.36726 2.8132701 125 125 123
2.4623301 5.35286 2.8206799 128 128 124
2.44554 5.3565202 2.8271999 129 129 127
2.4321301 5.3482699 2.8263299 119 118 114
2.4216399 5.3415098 2.8424599 124 123 120
2.85308 5.53688 2.6624801 138 137 134
2.70959 5.4622502 2.72523 140 140 137
2.5998299 5.4183798 2.77245 126 125 122
2.5553999 5.4028401 2.7865 110 110 107
2.5158601 5.3629198 2.8069301 120 120 118
2.5120399 5.3766098 2.8029101 128 128 126
2.40007 5.32868 2.85777 133 132 129
2.3757999 5.3172002 2.86269 117 115 111
2.3513999 5.30339 2.87591 119 117 115
2.3455 5.2922001 2.88081 120 118 116
1.92723 5.22756 2.98247 136 135 135
2.8227601 5.50734 2.68291 126 124 121
2.7883 5.5062699 2.6934299 128 127 124
2.7662301 5.4881501 2.7058499 136 135 131
2.7369101 5.4724698 2.7151799 134 133 130
2.57482 5.4009099 2.7881899 126 124 122
2.56761 5.40344 2.79092 128 126 124
3.01807 5.2467799 3.02281 132 132 132
2.79532 5.50178 2.69818 131 131 127
2.62988 5.4100499 2.77795 127 127 124
2.5540099 5.3815999 2.8041799 135 135 133
2.4476199 5.33603 2.85374 130 130 128
2.4165499 5.3207898 2.86709 130 129 127
2.66208 5.4300299 2.76232 135 135 132
1.74532 5.33145 2.85009 130 130 127
2.83987 5.4855199 2.7041399 141 140 137
2.66329 5.4217601 2.7667699 137 137 135
1.87018 5.2395902 2.9649 128 126 126
2.64888 5.4148798 2.77843 127 127 124
2.59763 5.3891902 2.8074901 133 133 130
2.56657 5.3779202 2.81387 119 119 118
2.5597 5.3757801 2.81496 123 122 119
2.5301099 5.3534002 2.8305299 119 117 114
2.1012199 5.42348 2.74951 145 144 144
2.4312 5.31108 2.87502 123 122 119
2.3638699 5.2579498 2.9029 132 130 127
2.8542299 5.4864898 2.7063501 125 125 122
2.8287499 5.4862099 2.7148199 125 125 122
2.8060501 5.4934001 2.7151101 133 132 129
2.74949 5.4509301 2.7394199 120 118 115
2.63148 5.39643 2.79936 132 133 130
2.6070499 5.3928399 2.8022399 138 137 135
2.57605 5.3731799 2.81585 134 132 129
2.3933799 5.2914801 2.9003301 128 127 124
2.80933 5.4760098 2.72609 133 133 129
2.7033899 5.4304199 2.76879 124 123 121
2.64641 5.4046001 2.8005199 138 138 136
2.6143301 5.3843198 2.81162 132 133 130
2.4818101 5.3214898 2.86675 122 122 121
2.8687 4.9502702 3.3038099 131 128 127
2.8290701 5.4686399 2.73087 136 135 132
2.78878 5.4549599 2.73912 124 123 120
2.64695 5.3863902 2.8071001 136 136 133
2.59074 5.36586 2.83201 119 120 117
2.5788 5.3624001 2.8303499 120 120 118
2.4703901 5.31181 2.88151 125 126 124
2.4538801 5.3095002 2.88591 121 121 119
2.4324701 5.3024802 2.89521 128 127 126
2.42256 5.3029399 2.8964901 137 135 133
2.3968301 5.2808199 2.91572 132 130 128
2.52338 5.50804 2.62991 133 133 130
2.8498099 5.4618702 2.7316899 129 128 125
2.8394499 5.4594002 2.7287099 133 132 129
2.6626301 5.39219 2.8012199 114 114 111
2.4493599 5.3115301 2.8913901 134 133 130
2.41854 5.2712202 2.9056599 117 114 113
2.3287499 5.1989999 3.0071199 137 136 134
1.92206 5.26264 2.93874 145 144 145
2.81652 5.4551101 2.75002 123 123 120
2.65395 5.3815999 2.8129001 120 121 118
2.63169 5.3722601 2.8231499 142 143 140
2.6024401 5.3653102 2.8380699 115 115 112
2.5917201 5.35115 2.8397901 114 115 112
2.5594299 5.3398299 2.86023 128 129 126
2.48172 5.2897201 2.8921101 151 151 149
2.4667301 5.26758 2.8919101 134 134 132
2.46029 5.2981 2.9044199 136 137 136
2.4377799 5.2878098 2.9119301 117 116 114
2.76601 5.4309201 2.7704201 121 119 116
2.7260301 5.4074001 2.7934799 110 109 106
2.6594601 5.3685298 2.8176601 115 115 113
2.6380301 5.3566198 2.8301599 127 127 125
2.60903 5.3539 2.84866 135 136 133
2.5912001 5.33711 2.8524599 117 118 115
2.50489 5.3043299 2.88939 134 134 133
2.83289 5.4495502 2.7525499 142 141 138
2.7611899 5.4063401 2.78685 108 107 104
2.49737 5.3017998 2.9005301 165 165 164
1.94256 5.2179198 2.9863701 135 136 136
2.6275001 5.3501701 2.8502901 128 128 125
2.5360301 5.3064098 2.8882401 130 131 129
2.42873 5.2701802 2.93435 151 152 151
2.4154201 5.2613702 2.9481201 126 126 125
2.7933199 5.4284401 2.78146 118 118 114
2.71241 5.37604 2.82566 127 127 124
2.6177199 5.34478 2.8585601 127 128 125
2.52566 5.30338 2.9013901 115 116 114
2.48141 5.2357998 2.92118 115 114 112
2.4532499 5.2690301 2.9331 136 137 136
2.3028901 5.1988702 3.0083799 146 145 144
2.8217101 5.4250398 2.7823801 117 116 113
2.39797 5.2436399 2.9685199 121 120 119
2.1057401 4.9934301 3.3005099 137 136 137
3.1580801 4.57304 3.81814 123 123 126
2.7357199 5.3646598 2.8287699 122 122 117
2.5652101 5.2946601 2.90377 132 131 130
2.5224199 5.28228 2.9147 123 123 121
2.5052199 5.28443 2.9235401 130 131 130
2.5033801 5.2747102 2.9312799 126 126 125
2.4195099 5.2494102 2.95877 122 121 121
2.4436901 5.1332502 3.11057 129 127 128
2.3760099 5.2626901 2.9309599 133 132 130
2.86358 5.4295602 2.7809801 126 125 122
2.8469901 5.4110198 2.7871001 127 127 124
2.79217 5.3968601 2.80955 124 123 120
2.38553 4.9334202 3.3951399 146 146 143
2.59536 5.3021302 2.8980999 117 117 116
2.4868 5.2234101 2.9349899 115 115 112
2.4180501 5.2471499 2.9686501 125 125 124
2.3610899 5.2181201 2.99667 123 123 121
2.3417599 5.1823001 3.00583 111 111 108
1.66631 5.2006402 3.0109899 125 125 125
3.3304801 5.3217802 2.92693 140 140 139
2.5808301 5.2943702 2.90976 128 128 126
2.4853899 5.2609901 2.9488201 143 144 143
2.42734 5.1946902 2.9695001 120 121 119
2.4080801 5.23033 2.9885099 112 113 112
3.6729701 5.1429801 3.1478 148 148 146
3.2314301 4.95889 3.3636301 137 136 133
2.8880401 5.4186702 2.7906799 128 128 124
2.86465 5.4105802 2.7984099 129 129 126
2.84936 5.40943 2.80407 120 120 117
2.8362899 5.4104199 2.80494 122 122 119
2.7620699 5.37076 2.8394301 121 121 118
2.65116 5.2899399 2.8868699 119 117 115
2.56563 5.2514801 2.92328 116 113 113
2.48592 5.2269702 2.95295 143 144 142
2.4317701 5.23774 2.97701 114 115 113
2.4040899 5.21769 2.9942 118 118 116
2.8013599 4.9925699 3.3201399 142 142 138
1.89509 5.3984098 2.78303 136 136 133
2.9781699 4.9121199 3.3857 122 122 119
2.8042099 5.3867798 2.82426 150 150 146
2.80129 5.3752899 2.8361599 111 111 108
2.7876799 5.3811498 2.83476 121 120 117
2.70206 5.3041 2.8671601 121 120 118
2.63342 5.3002601 2.9051099 121 119 118
2.5997 5.2934899 2.9128799 130 129 128
2.5889201 5.2884498 2.9184599 128 127 126
2.53546 5.26407 2.9520199 135 134 134
2.4980199 5.2469902 2.9609301 143 143 143
2.46559 5.2425699 2.9728999 125 127 126
2.3984699 5.2155399 3.0049601 118 118 117
2.3443 5.1764202 3.0297201 126 125 123
2.8301401 5.3915901 2.8234701 125 125 124
2.67435 5.3200898 2.8905301 127 126 124
2.6624701 5.30058 2.89394 123 121 120
2.6605699 5.3096299 2.9003401 121 120 119
2.59762 5.2479601 2.91834 124 124 122
2.58409 5.2687702 2.9333301 113 111 110
2.5462601 5.2485099 2.9431601 126 124 124
2.45186 5.1975899 2.98594 117 118 116
2.34446 5.4493299 2.7311699 148 147 146
2.7768199 5.3589702 2.85337 116 116 113
2.7507901 5.3431201 2.86607 123 122 120
2.67556 5.3121901 2.90224 114 113 112
2.6375799 5.2894502 2.9212201 123 121 121
2.5538199 5.2408099 2.9514699 132 130 130
2.5285499 5.2494502 2.96843 145 144 144
1.81569 5.4394898 2.7346399 114 113 112
2.7696199 5.3449798 2.8685701 110 110 109
2.7308199 5.3266902 2.88483 128 128 127
2.5839 5.2751999 2.94433 114 113 112
2.56357 5.20506 2.9575801 126 125 123
2.50629 5.22855 2.9795699 154 154 153
2.4679 5.2255101 2.9945099 127 128 127
3.1979201 4.4045601 4.03478 123 124 123
1.9264899 5.13802 3.08009 127 128 128
2.45347 5.3266101 2.86678 124 124 122
2.83672 5.35531 2.8420601 131 131 128
2.72087 5.31528 2.9022601 133 132 131
2.68571 5.3038502 2.9100299 129 128 128
2.57427 5.2266998 2.9521501 121 120 119
2.5415101 5.24225 2.9686401 126 125 124
2.4386301 5.2105398 3.0152099 116 117 116
3.32549 4.88908 3.4519601 160 158 154
2.83478 5.3515201 2.8510799 132 131 128
2.7970901 5.3477802 2.8689899 116 115 114
2.7346599 5.3175702 2.9037299 135 134 133
2.6673501 5.2926502 2.92714 125 125 124
3.1485801 4.8143702 3.4981999 114 114 111
2.8441 5.3554201 2.8548701 131 131 129
2.7728701 5.32898 2.8887701 121 121 120
3.2769401 4.6770701 3.67555 127 127 126
2.71542 5.30828 2.91236 148 148 147
2.65677 5.2753301 2.9328001 130 129 129
2.60043 5.2618699 2.9612801 135 135 134
3.11432 5.06528 3.2128401 147 147 144
3.1845801 4.6333199 3.7420199 128 128 125
2.88463 5.3642602 2.8474901 140 140 137
2.83201 5.36483 2.8690701 133 132 131
2.8106501 5.3446102 2.8740101 142 141 140
2.7397599 5.2873402 2.9119101 125 124 122
3.55001 5.1733098 3.1129301 144 143 142
1.7800699 5.4998398 2.6912999 137 136 134
2.69994 5.2977901 2.92256 147 147 146
2.6087201 5.2341599 2.9726601 129 130 129
2.44154 5.1925602 3.0369699 127 127 126
2.4362299 5.3652501 2.82166 146 145 142
2.84394 5.3396602 2.87221 163 162 160
2.7592499 5.3173399 2.90611 115 115 113
2.4472699 5.1868401 3.04074 119 118 118
3.1668501 4.7167301 3.6166601 111 112 109
2.7707 5.3190198 2.9126501 115 115 112
2.6364501 5.2589598 2.9651899 129 131 129
2.63377 5.2540302 2.9734399 123 125 123
2.5213301 5.2175798 3.01651 120 120 118
2.4129601 5.17486 3.0662999 127 126 125
3.4842999 5.1139102 3.18648 148 148 143
2.3833799 5.1263099 3.0787301 123 122 122
2.91521 4.8836699 3.4953301 121 121 115
2.8448801 5.3287802 2.8851099 133 132 130
2.75806 5.3021598 2.92349 122 121 119
2.6665599 5.2642598 2.9654601 122 123 122
2.3680999 5.1521802 3.09076 140 139 138
